# .PCD v0.7 - Point Cloud Data file format
VERSION 0.7
FIELDS x y z
SIZE 4 4 4
TYPE F F F
COUNT 1 1 1
WIDTH 300
HEIGHT 1
VIEWPOINT 0 0 0 1 0 0 0
POINTS 300
DATA ascii
0.16599999 2.007 0.083999999
0.12 2.023 0.086000003
0.14399999 2.006 0.117
0.168 2.0050001 0.145
0.123 2.017 0.145
0.145 2.006 0.27000001
0.133 2.0179999 0.31200001
0.16 2.0020001 0.34299999
0.115 2.023 0.34599999
0.14300001 2.0109999 0.375
0.182 2.0139999 0.55500001
0.133 2.0190001 0.55900002
0.16599999 2.0109999 0.59399998
0.12 2.026 0.59899998
0.149 2.006 0.62699997
0.105 2.0369999 0.63599998
0.134 2.013 0.65899998
0.153 2.0039999 0.55400002
0.146 2.0150001 0.53200001
0.17299999 2.007 0.287
0.127 2.01 0.28799999
0.161 2.01 0.264
0.115 2.023 0.26499999
0.145 2.0079999 0.236
0.1 2.033 0.237
0.132 2.0109999 0.204
0.131 2.01 0.072999999
0.15800001 2.0090001 0.052999999
0.112 2.0280001 0.052999999
0.141 2.003 0.052999999
0.164 2.0039999 0.079999998
0.118 2.017 0.079000004
0.17299999 2.01 0.184
0.126 2.0190001 0.18700001
0.15800001 2.0090001 0.22499999
0.113 2.036 0.229
0.139 2.006 0.25799999
0.16500001 2.0090001 0.28999999
0.121 2.026 0.29100001
0.182 2.0120001 0.449
0.134 2.0139999 0.45100001
0.18000001 2.01 0.55500001
0.13500001 2.0120001 0.55400002
0.154 2.003 0.65799999
0.148 2.0150001 0.63700002
0.13699999 2.01 0.60900003
0.17399999 2.0120001 0.58099997
0.127 2.017 0.579
0.149 2.006 0.37099999
0.104 2.029 0.37599999
0.139 2.0150001 0.34799999
0.17200001 2.006 0.31999999
0.125 2.013 0.31999999
0.16 2.0050001 0.28799999
0.113 2.0209999 0.287
0.17200001 2.0050001 0.13699999
0.126 2.016 0.139
0.155 2.0150001 0.117
0.109 2.023 0.117
0.13500001 2.007 0.090999998
0.163 2.006 0.063000001
0.117 2.0179999 0.061000001
0.156 2.007 0.11
0.109 2.0309999 0.114
0.14 2.016 0.15099999
0.16500001 2.0050001 0.183
0.119 2.02 0.184
0.145 2.007 0.212
0.13699999 2.006 0.35699999
0.17200001 2.01 0.396
0.125 2.02 0.39899999
0.155 2.01 0.43000001
0.183 2.0050001 0.461
0.109 2.0220001 0.433
0.138 2.0120001 0.461
0.152 2.0020001 0.65600002
0.185 2.0139999 0.69800001
0.138 2.0190001 0.69999999
0.154 2.0109999 0.68599999
0.152 2.0120001 0.46000001
0.107 2.036 0.46599999
0.142 2.006 0.43399999
0.097999997 2.05 0.442
0.131 2.017 0.40799999
0.167 2.0139999 0.377
0.119 2.0190001 0.375
0.147 2.003 0.207
0.103 2.039 0.212
0.133 2.0179999 0.185
0.162 2.0079999 0.15899999
0.116 2.0220001 0.15800001
0.146 2.003 0.127
0.1 2.033 0.126
0.171 2.0109999 0.082000002
0.125 2.0179999 0.082999997
0.148 2.006 0.114
0.17200001 2.007 0.14300001
0.103 2.0339999 0.115
0.12800001 2.016 0.142
0.149 2.0039999 0.266
0.102 2.0209999 0.27000001
0.13600001 2.0139999 0.30700001
0.164 2.006 0.34
0.119 2.02 0.34200001
0.147 2.013 0.37200001
0.184 2.0139999 0.55199999
0.13699999 2.0179999 0.55500001
0.168 2.006 0.58899999
0.123 2.0250001 0.59600002
0.15099999 2.007 0.62400001
0.107 2.0339999 0.63200003
0.13600001 2.0020001 0.65200001
0.153 2.0039999 0.55400002
0.146 2.0150001 0.53299999
0.17200001 2.0109999 0.47499999
0.12800001 2.0139999 0.289
0.161 2.0079999 0.26300001
0.115 2.023 0.26499999
0.146 2.0050001 0.236
0.1 2.0309999 0.237
0.132 2.0120001 0.204
0.131 2.01 0.072999999
0.15700001 2.007 0.052999999
0.112 2.0280001 0.054000001
0.14300001 2.0050001 0.052999999
0.16500001 2.006 0.079000004
0.12 2.02 0.078000002
0.127 2.013 0.185
0.16 2.01 0.22400001
0.114 2.0280001 0.226
0.14 2.0079999 0.25799999
0.167 2.01 0.289
0.122 2.0239999 0.289
0.182 2.0109999 0.44800001
0.134 2.0150001 0.45100001
0.18099999 2.0109999 0.55400002
0.13500001 2.0120001 0.55299997
0.148 2.003 0.65499997
0.142 2.016 0.634
0.131 2.0139999 0.60600001
0.168 2.007 0.57599998
0.12 2.02 0.57599998
0.142 2.0039999 0.36899999
0.132 2.016 0.34599999
0.164 2.0039999 0.317
0.118 2.0239999 0.31799999
0.152 2.0079999 0.285
0.106 2.0239999 0.285
0.16599999 2.0079999 0.13600001
0.12 2.0220001 0.138
0.149 2.0150001 0.116
0.103 2.036 0.116
0.12899999 2.0109999 0.090000004
0.15700001 2.0039999 0.061000001
0.111 2.0220001 0.059
0.15700001 2.0090001 0.109
0.111 2.0339999 0.113
0.141 2.016 0.15000001
0.16599999 2.003 0.182
0.12 2.0190001 0.183
0.145 2.0050001 0.211
0.101 2.0409999 0.214
0.138 2.0090001 0.35600001
0.17200001 2.006 0.39399999
0.126 2.023 0.398
0.155 2.007 0.42899999
0.184 2.01 0.461
0.11 2.0250001 0.43200001
0.139 2.0139999 0.461
0.153 2.0050001 0.65499997
0.186 2.0120001 0.69499999
0.139 2.02 0.699
0.117 2.0120001 0.69199997
0.164 2.0079999 0.46700001
0.119 2.016 0.46900001
0.155 2.007 0.44299999
0.111 2.05 0.45100001
0.14399999 2.0109999 0.41499999
0.097999997 2.04 0.419
0.133 2.017 0.384
0.163 2.003 0.214
0.118 2.0190001 0.21600001
0.149 2.013 0.191
0.103 2.0320001 0.193
0.131 2.0079999 0.164
0.162 2.0020001 0.134
0.116 2.0179999 0.132
0.139 2.016 0.078000002
0.163 2.007 0.109
0.117 2.023 0.11
0.141 2.0050001 0.13699999
0.162 2.0020001 0.259
0.116 2.03 0.264
0.148 2.006 0.30000001
0.104 2.0380001 0.30500001
0.132 2.013 0.33500001
0.15899999 2.0009999 0.36399999
0.114 2.027 0.36700001
0.148 2.0150001 0.54500002
0.134 2.0209999 0.58600003
0.163 2.007 0.616
0.118 2.0320001 0.62300003
0.147 2.0020001 0.64499998
0.171 2.013 0.56599998
0.125 2.0179999 0.56800002
0.163 2.0109999 0.542
0.118 2.0250001 0.54400003
0.142 2.0090001 0.48199999
0.094999999 2.0309999 0.484
0.146 2.0039999 0.29499999
0.101 2.036 0.30000001
0.134 2.0150001 0.27200001
0.16500001 2.0090001 0.245
0.119 2.023 0.244
0.15099999 2.003 0.212
0.105 2.029 0.212
0.15099999 2.0050001 0.078000002
0.106 2.03 0.079999998
0.132 2.0150001 0.059
0.133 2.0079999 0.074000001
0.141 2.006 0.178
0.12800001 2.0209999 0.219
0.154 2.007 0.25099999
0.108 2.027 0.25299999
0.13500001 2.0079999 0.28099999
0.147 2.013 0.442
0.101 2.053 0.45199999
0.134 2.01 0.47999999
0.148 2.0090001 0.54400003
0.17399999 2.0139999 0.54100001
0.12899999 2.0220001 0.54299998
0.14399999 2.007 0.456
0.14399999 2.006 0.27399999
0.131 2.016 0.25099999
0.161 2.0020001 0.223
0.116 2.0239999 0.22400001
0.148 2.006 0.191
0.101 2.026 0.19
0.145 2.006 0.063000001
0.155 2.006 0.063000001
0.109 2.0280001 0.063000001
0.132 2.01 0.089000002
0.142 2.0090001 0.198
0.12800001 2.0179999 0.23999999
0.155 2.006 0.27200001
0.109 2.0309999 0.27500001
0.13600001 2.0109999 0.303
0.153 2.01 0.46700001
0.107 2.0420001 0.47600001
0.169 2.007 0.54000002
0.124 2.0179999 0.542
0.153 2.006 0.56999999
0.13 2.01 0.64300001
0.169 2.0120001 0.62
0.123 2.02 0.62099999
0.15800001 2.0079999 0.59200001
0.112 2.026 0.59500003
0.148 2.0090001 0.56099999
0.169 2.0039999 0.35800001
0.124 2.0220001 0.36199999
0.15800001 2.006 0.33500001
0.113 2.0309999 0.338
0.145 2.0109999 0.308
0.098999999 2.027 0.308
0.132 2.007 0.27399999
0.146 2.0109999 0.12800001
0.1 2.0350001 0.131
0.12800001 2.0179999 0.107
0.155 2.0050001 0.082000002
0.109 2.029 0.082000002
0.13600001 2.007 0.052999999
0.14 2.0079999 0.117
0.17200001 2.013 0.156
0.125 2.02 0.15800001
0.15000001 2.006 0.19
0.105 2.0339999 0.192
0.13 2.0120001 0.219
0.17299999 2.007 0.36300001
0.126 2.0239999 0.368
0.15899999 2.0090001 0.40400001
0.18799999 2.0090001 0.43900001
0.113 2.0250001 0.40799999
0.14300001 2.013 0.43900001
0.098999999 2.0469999 0.44600001
0.127 2.016 0.46900001
0.14300001 2.0039999 0.667
0.148 2.0150001 0.68000001
0.145 2.01 0.45500001
0.13600001 2.0120001 0.43099999
0.17 2.0120001 0.40400001
0.124 2.017 0.403
0.15899999 2 0.37
0.113 2.026 0.37200001
0.141 2.01 0.205
0.17299999 2.0109999 0.182
0.096000001 2.0350001 0.208
0.127 2.0179999 0.182
0.155 2.0050001 0.155
0.109 2.027 0.155
0.139 2.007 0.124
